ply
format ascii 1.0
element vertex 1315
property float x
property float y
property float z
property uchar red
property uchar green
property uchar blue
element edge 0
property int vertex1
property int vertex2
end_header
1.67118 2.97617 5.79067 210 200 198
1.4404 2.89396 5.6209 202 193 194
1.25827 2.8667 5.68461 153 147 151
2.58182 2.93936 5.92534 148 142 142
2.34649 3.09261 5.47762 220 214 214
2.55662 2.77389 6.3564 105 100 96
-1.26147 3.57261 3.43674 121 115 115
-1.30801 3.48373 3.72813 145 141 140
-1.21642 3.63038 3.37821 144 144 144
-1.45984 3.48433 3.7298 158 152 152
-1.69009 3.51158 3.59753 150 144 144
-1.71695 3.52997 3.52919 151 147 148
-0.923325 3.57735 3.39328 134 130 131
-0.524695 3.62054 3.57693 134 125 126
-0.6414 3.47361 3.74909 135 129 133
-1.22739 3.48816 3.74927 204 200 201
-0.882306 3.42668 3.69649 206 200 204
-0.947344 3.54741 3.46856 205 199 201
-0.996157 3.43374 3.85117 205 199 203
-0.666739 3.58526 3.56042 171 166 160
-0.169929 3.35222 4.13165 115 111 112
-0.196787 3.40096 4.10362 140 136 137
0.572276 3.27072 4.41027 115 109 113
0.76173 3.33337 4.15576 136 131 135
0.0882615 3.3141 4.35134 146 140 142
0.146624 3.32439 4.41012 209 205 206
0.316822 3.51643 3.88234 196 192 193
1.01986 3.36046 4.45759 127 121 123
1.3081 3.19107 4.93234 135 129 133
1.33042 3.43113 4.32287 136 132 131
0.98627 3.38061 4.33462 146 140 144
1.30488 3.22187 4.86422 151 145 147
1.27942 3.43962 4.31748 151 145 145
2.23599 3.29045 4.83943 208 202 206
2.08655 3.25896 5.04505 133 127 131
2.1457 3.14134 5.25794 150 144 144
2.98077 3.14629 5.40846 124 120 121
2.98365 3.22413 5.54333 201 197 198
-0.865223 3.70303 3.25844 122 116 116
-0.713715 3.74054 3.13237 131 127 128
-0.956069 3.7504 3.0714 216 210 210
-0.939654 3.72654 3.15885 118 114 115
-0.920039 3.75738 3.08122 194 188 188
-1.06425 3.65014 3.19421 135 133 134
-1.08836 3.65646 3.22714 214 212 213
-1.00373 3.74724 3.11583 198 192 194
-0.710273 3.77942 3.00899 209 203 203
-0.521621 3.77909 3.02989 209 203 203
-0.216033 3.6909 3.37437 89 87 88
-0.32948 3.77153 3.13076 129 124 128
-0.258613 3.75986 3.17159 213 208 212
-0.467507 3.7358 3.17583 194 192 197
-0.393188 3.63797 3.50157 141 132 135
0.274161 3.70113 3.41672 120 111 116
0.0176766 3.71499 3.2941 122 117 121
0.480442 3.68051 3.51824 147 142 146
-0.0317848 3.55615 3.72992 202 197 201
-0.153612 3.63907 3.53127 199 194 198
0.0604591 3.7104 3.34575 193 191 196
0.146714 3.56858 3.73339 164 159 165
0.981229 3.61665 3.69339 118 112 116
0.496333 3.57797 3.65841 141 136 140
0.997036 3.6053 3.66673 207 201 205
0.734728 3.6267 3.63222 125 123 126
0.893737 3.5991 3.59144 209 207 210
0.931314 3.55714 3.72698 159 153 157
0.699455 3.51599 3.63113 205 199 203
1.38172 3.4813 4.17962 121 115 115
1.47144 3.50885 4.18662 130 124 126
1.13521 3.48681 4.0775 142 136 136
1.96951 3.56493 4.05453 131 124 131
1.99467 3.41521 4.42524 205 199 203
2.00097 3.52992 4.27176 139 133 135
1.67613 3.39754 4.3929 128 122 126
2.40758 3.49078 4.25727 127 121 121
2.39782 3.52214 4.25183 202 196 196
2.27197 3.45376 4.44852 130 123 130
2.37554 3.48219 4.32175 199 193 197
2.5595 3.43896 4.51361 207 201 203
2.65502 3.4109 4.64191 210 203 210
2.68328 3.40561 4.58048 142 136 140
-0.0182309 3.75259 3.15722 200 194 198
0.550176 3.70622 3.38554 123 121 124
0.281579 3.75928 3.32809 128 128 130
0.272234 3.74876 3.29351 129 129 131
0.504126 3.73902 3.40983 201 199 202
0.495872 3.72443 3.35996 192 187 191
0.564932 3.7232 3.36117 179 174 178
0.116226 3.74077 3.2068 199 194 198
1.08335 3.65517 3.50026 209 204 208
0.928725 3.62195 3.46422 150 145 149
0.91694 3.61704 3.51817 176 170 174
1.4403 3.63541 3.72295 208 202 202
1.10707 3.61012 3.59501 202 196 200
1.29282 3.59528 3.68442 193 187 187
2.07509 3.56739 4.01605 126 121 118
2.05221 3.56246 4.04464 139 133 133
1.59985 3.62342 3.81792 130 124 126
2.03915 3.59544 3.99048 120 114 114
1.77459 3.62556 3.85245 135 129 133
1.80091 3.6343 3.87639 197 195 198
1.61582 3.6167 3.85474 129 123 127
1.75855 3.59746 3.91315 187 182 186
1.91111 3.62008 3.91564 141 136 140
2.60681 3.52526 4.30226 117 113 114
2.39559 3.55141 4.1602 122 116 120
2.25043 3.56256 4.08066 201 194 201
2.22177 3.5434 4.13239 195 188 195
2.18104 3.58497 4.04274 191 185 189
2.22727 3.57197 4.05886 130 123 130
2.31431 3.57787 4.11663 199 194 198
2.13824 3.55027 4.05099 197 191 195
2.20265 3.56268 4.08236 187 180 188
2.38894 3.53099 4.20143 193 187 191
2.62968 3.53871 4.23891 123 117 117
1.83415 3.50882 4.1952 212 206 206
1.55929 3.43095 4.36033 203 197 197
0.375491 3.65148 3.5083 199 194 198
-0.736983 3.76785 3.02425 193 189 190
0.397003 3.56509 3.66918 149 145 146
1.29914 3.60099 3.86511 169 163 167
1.97595 3.51054 4.22291 205 200 197
-1.07442 3.67302 3.17737 139 137 138
2.32521 3.47439 4.42817 136 131 137
0.220468 3.695 3.43663 204 198 202
-1.58823 3.5387 3.53685 201 195 195
0.18406 -2.42353 3.70853 91 106 47
-1.22151 3.64766 3.31347 199 193 193
1.59021 3.50725 4.17508 139 137 140
2.15178 3.52909 4.23985 129 122 129
-1.54581 3.5089 3.5535 204 200 199
-0.117054 -2.49626 3.65516 98 108 9
-0.839953 3.7818 2.9902 177 173 174
0.012387 3.70834 3.30974 204 202 207
-1.07084 3.70936 3.1161 203 201 202
-0.633053 3.72173 3.17856 196 192 191
1.69639 3.55955 4.0476 203 198 202
-0.841406 3.73282 3.11517 194 185 188
0.610181 3.54637 3.87506 196 190 194
-0.0849803 -2.23481 3.73113 47 52 20
-1.23992 3.62833 3.31754 161 155 155
1.29266 3.54093 3.98052 144 138 138
1.17473 3.59996 3.75075 167 161 165
-1.12425 3.60054 3.39591 187 185 186
-0.703084 3.7435 3.06131 157 151 151
2.24471 3.21968 4.89 205 199 199
-1.08823 3.40927 3.73438 200 196 197
1.86301 3.42999 4.29892 198 193 190
2.56999 3.40286 4.63507 138 131 139
-0.984835 3.63767 3.27349 195 191 192
0.415451 3.5413 3.85669 155 149 151
2.54058 3.30489 4.91635 173 167 171
1.26319 3.47935 4.03378 208 203 200
-1.64223 3.49544 3.6207 200 196 197
-2.48964 3.26956 4.23139 197 192 196
2.33125 3.3469 4.75862 206 200 204
-1.53912 3.48307 3.70678 207 201 201
1.09125 3.59013 3.84113 145 139 143
1.76025 3.3477 4.65112 210 205 202
1.75212 3.04928 5.25724 199 193 193
1.36708 3.57534 3.90927 202 196 196
-1.76396 3.50771 3.70492 202 196 196
0.10755 -2.36518 3.70865 61 70 17
1.28125 3.21929 4.87618 208 202 202
-1.88595 3.29254 4.10315 174 168 168
-0.563635 3.69264 3.24923 203 201 202
-1.04116 3.63314 3.31812 202 198 199
-0.490515 3.74714 3.12037 203 201 204
-1.77267 3.48978 3.61794 201 195 195
2.15293 3.14962 5.19672 207 203 202
1.84326 3.42044 4.46902 209 203 207
-0.164792 3.60781 3.56746 208 203 207
0.909362 -2.41963 4.15803 61 74 18
2.02176 3.456 4.45608 199 193 195
-0.619452 3.60426 3.40402 200 194 194
-1.86537 3.40762 3.79932 204 200 201
0.634547 3.35743 4.318 205 200 204
0.722317 -2.62717 3.91375 47 61 12
-1.76595 3.37705 3.8915 171 169 170
2.60911 3.36263 4.66439 152 146 148
1.44713 3.08526 5.08182 209 203 207
0.330562 3.67327 3.44688 195 189 193
-1.06879 3.66181 3.23683 170 166 167
-1.36391 3.56004 3.4266 198 192 192
1.05482 3.24258 4.70838 203 197 197
0.399278 3.49042 4.02135 197 191 195
-1.25424 3.23311 4.26608 204 199 195
1.45597 2.88229 5.6631 171 162 163
2.46728 2.84111 5.96221 176 167 168
-1.13159 3.38477 3.84701 185 179 183
-1.68311 3.44492 3.78507 192 188 189
0.136954 3.47464 3.80483 205 199 201
-0.518904 -2.63015 3.80179 69 70 36
0.0214268 0.918953 5.00963 136 129 123
0.0147564 0.822905 5.07921 63 56 48
-1.00554 1.3475 4.16648 75 73 84
-0.53471 1.82214 4.67518 128 128 136
0.737109 1.81887 7.70396 91 71 47
0.40448 1.79913 7.66988 105 84 65
0.995196 2.14752 7.86073 97 79 67
2.11435 1.14721 5.3933 246 224 200
2.18513 1.34491 5.46227 241 217 193
3.14017 1.23132 7.22977 169 160 145
-0.709461 2.37779 4.40306 135 133 138
-0.865687 2.07508 4.62283 42 40 43
-0.235298 2.22467 4.4043 138 137 145
-0.485856 2.28252 4.38265 95 94 99
0.112605 2.72247 5.41487 128 118 116
1.15123 2.70986 6.21351 160 154 154
1.26675 2.72384 6.25032 122 113 116
3.14089 2.58671 6.97854 124 106 86
1.03073 3.05322 5.09755 203 198 204
1.92964 3.16436 5.01749 157 155 158
1.85282 3.07654 5.22638 137 131 135
2.3187 2.88798 5.89146 115 102 93
3.03637 2.82851 6.20229 186 177 180
3.11719 3.05869 5.73724 204 196 194
-1.14546 3.36128 3.88079 157 155 160
1.47877 3.48364 4.29349 204 199 205
1.77235 3.43832 4.31713 142 137 143
2.11306 3.42874 4.49923 138 133 139
2.2382 3.34783 4.69638 158 149 154
2.94315 3.19592 5.33396 134 125 130
0.206493 3.73157 3.35088 127 122 126
0.37953 3.68523 3.48848 206 201 207
1.01656 3.59458 3.77022 147 145 148
1.5231 3.56071 4.03985 202 195 202
0.120732 3.75726 3.24622 163 161 162
-0.397981 3.66727 3.42609 146 140 140
1.75825 3.40908 4.38999 202 195 202
1.96863 3.27046 4.96817 204 197 204
2.15097 3.37673 4.72098 204 198 200
1.18816 3.30472 4.68287 197 190 197
1.78427 3.46685 4.26261 202 197 203
-0.175921 3.32474 4.10963 170 163 170
1.48328 3.12392 5.02023 207 197 205
2.58607 3.0059 5.7292 204 195 198
1.76971 3.36195 4.5877 171 162 167
0.893767 3.46294 4.01979 200 195 201
2.60706 3.31656 4.87502 173 164 169
1.44065 3.24986 4.79072 174 168 172
-0.650036 -2.65475 3.63402 56 60 37
0.00331627 -2.34345 3.67127 75 85 48
0.202738 -1.83794 3.73705 78 87 0
-0.430259 -1.83891 4.42231 180 177 170
-0.819781 -0.431063 3.89204 81 88 55
1.71331 -0.178567 5.49437 97 105 66
-1.11254 1.09262 4.16082 129 128 133
-0.613058 0.913399 4.69731 87 78 71
2.46196 0.451121 5.39989 215 190 159
-0.907847 1.58562 4.39045 110 107 116
2.12823 1.2267 5.43247 242 218 194
2.1292 1.16942 5.41796 240 231 200
-2.7178 3.05902 4.89752 149 139 137
-0.532363 2.25838 4.3862 64 62 67
-0.365885 2.3496 4.29848 100 98 103
-0.396064 2.23319 4.3689 129 132 139
-0.0387505 2.62758 5.26431 147 136 134
1.33794 2.90206 5.699 200 191 192
2.54998 2.66961 6.48207 175 169 169
-1.68817 3.2754 4.15062 163 161 162
-0.171612 3.20383 4.46539 85 87 99
-0.541951 2.82366 4.12777 92 92 102
2.95068 3.06507 5.72982 167 163 164
3.20084 2.98178 5.93703 176 167 170
3.19048 2.98944 5.89517 203 195 193
2.99309 3.13722 5.5902 206 200 204
-1.24769 3.53569 3.54502 101 96 102
-1.20895 3.53488 3.59287 201 197 198
-0.827765 3.54268 3.63554 141 139 144
-1.13541 3.54488 3.56722 137 135 140
0.62934 3.31162 4.48669 108 101 108
1.49463 3.22888 4.82723 115 113 116
1.69634 3.3056 4.67629 146 140 142
2.12994 3.34386 4.82676 155 149 149
2.45618 3.42131 4.66142 138 129 132
2.96572 3.29558 5.03783 206 201 205
-0.400182 3.75537 3.17808 205 200 204
-0.597841 3.73633 3.18187 136 131 135
-0.400788 3.74835 3.19552 202 197 203
-0.218019 3.56247 3.59338 129 122 129
0.514938 3.7075 3.47798 123 118 124
0.341669 3.63668 3.50845 210 205 211
1.97393 3.53855 4.20801 138 132 132
2.07591 3.59275 4.04189 108 102 106
2.01578 3.51777 4.24372 134 129 133
2.15027 3.53549 4.21924 199 194 200
2.22553 3.56838 4.16561 193 188 194
2.76122 3.47549 4.53123 146 144 145
2.66688 3.44472 4.54694 149 145 146
2.87235 3.4089 4.55659 153 144 147
-0.289584 3.75496 3.17554 198 191 198
-0.223441 3.78437 3.06955 199 194 198
-0.0488959 3.76475 3.14699 158 156 159
-0.126723 3.77747 3.10393 200 200 202
0.411602 3.7366 3.39252 132 127 133
0.666703 3.68207 3.33075 138 133 139
-0.466803 3.71586 3.25267 114 109 115
1.63489 3.53773 4.11131 212 207 211
-0.920978 3.57076 3.38922 141 139 144
2.54309 3.51369 4.3006 196 192 191
1.96113 3.55342 4.07205 199 193 197
-0.655325 3.44652 3.73113 196 194 199
1.43418 3.5101 4.16415 194 187 194
0.394479 -2.46741 3.7283 54 65 9
2.18329 3.37174 4.59873 160 151 154
-0.575856 3.59483 3.43522 154 148 150
2.02931 3.52816 4.24086 204 198 202
2.03107 3.4827 4.28665 195 190 194
1.38151 3.59539 3.94524 199 194 198
0.571105 3.53067 3.69975 202 195 202
1.86798 3.52695 4.18219 200 193 200
-0.702293 3.69149 3.21883 201 197 198
2.06148 3.21727 5.01546 198 191 198
1.12612 3.4448 4.3216 203 198 202
2.5597 3.52231 4.35717 153 149 150
1.35394 3.52082 4.07057 168 161 168
-0.131626 3.61489 3.57051 163 158 164
0.631942 3.64789 3.61366 152 147 153
1.95039 3.47743 4.3113 192 187 193
0.31279 -2.83619 3.62526 123 133 81
0.137426 -2.42546 3.70243 129 143 82
0.112902 -2.59463 3.67334 103 108 0
0.236185 -2.56216 3.6655 44 51 7
1.2929 -2.58485 4.27834 60 63 36
-0.723886 -1.62727 3.7834 124 134 48
-0.601516 -1.36371 3.79029 105 109 86
-0.273587 -1.89232 4.64015 95 98 89
-0.973116 -0.743994 3.91263 68 76 53
-0.989103 0.303675 4.50392 101 95 95
1.00844 -0.441386 5.01158 39 42 31
-1.22526 1.09665 4.14991 133 134 139
-0.970823 1.13049 4.13765 111 108 115
-1.24839 1.12996 4.14141 105 106 111
2.19257 0.560632 5.24895 226 202 174
0.164119 1.19154 4.90139 103 109 73
1.86007 1.15865 5.48458 196 161 119
2.1895 1.05276 5.32591 245 230 191
-0.620435 2.46552 4.30233 84 82 85
-0.351504 2.50685 4.2125 73 71 76
-0.25452 2.39328 4.28127 83 80 87
0.312431 2.89388 5.3453 195 193 194
1.07327 2.81041 5.7025 130 120 121
-1.95473 3.11009 4.64247 190 186 187
-0.738312 2.71679 4.21022 80 77 84
-0.564908 2.96131 4.13976 128 127 135
0.310514 2.92806 5.26729 203 197 197
0.660001 2.98584 5.27401 134 128 132
0.989295 3.20128 4.9001 147 142 139
1.41121 2.90687 5.66794 117 108 109
1.38817 2.91309 5.64362 210 202 200
1.99245 2.98202 5.51614 200 195 192
2.37009 2.97004 5.73088 148 143 140
2.12798 2.93904 5.72982 201 192 193
2.51436 2.86887 5.92541 202 195 202
2.5031 2.81835 5.96454 130 126 127
-1.56266 3.55826 3.55297 123 117 117
-1.88155 3.50114 3.6497 150 144 144
-1.39942 3.53457 3.48552 128 122 122
-1.59037 3.52358 3.56044 143 137 137
-0.744963 3.3399 4.08821 199 190 191
-0.735097 3.59806 3.59587 147 146 144
-0.583149 3.36703 4.16848 106 104 109
-0.587878 3.35285 4.21202 89 86 93
-0.297981 3.42395 4.01607 203 198 202
0.565983 3.45654 4.08145 101 95 99
0.345259 3.5126 3.99084 121 115 115
0.959518 3.4665 4.11189 131 124 131
1.23877 3.31418 4.72955 168 162 162
1.80859 3.23072 4.94493 115 109 113
1.65069 3.35995 4.63449 201 195 199
1.97576 3.446 4.42411 147 141 145
1.95249 3.43533 4.43167 207 201 205
2.14709 3.34322 4.72065 116 110 114
2.40561 3.43842 4.52518 148 141 148
2.00817 3.42712 4.47636 145 139 143
2.21663 3.30632 4.85518 203 197 201
-0.649961 3.72028 3.15335 148 143 140
-0.319055 3.6956 3.34452 150 148 149
-0.726934 3.65724 3.26497 152 146 146
-0.421785 3.5839 3.6004 134 128 128
0.223723 3.6489 3.46209 127 122 126
0.0113328 3.67385 3.40215 208 206 209
0.404138 3.59508 3.63076 114 109 113
0.446972 3.56368 3.88497 134 128 128
0.317937 3.64231 3.49454 202 197 201
1.1984 3.63173 3.67071 118 112 116
1.21278 3.60679 3.74468 155 149 153
1.19617 3.5584 3.82605 211 205 209
1.19001 3.52415 3.88983 202 195 202
1.54812 3.63153 3.81093 127 121 123
1.51069 3.57448 3.96433 213 207 211
1.90329 3.53715 4.08628 143 137 141
1.95189 3.52773 4.16485 209 204 201
1.9713 3.54315 4.17351 146 140 140
2.5142 3.45625 4.49243 119 113 117
2.12005 3.56408 3.98304 120 114 118
2.03641 3.55061 4.10983 142 136 140
2.18105 3.58309 4.01414 137 131 135
2.60976 3.49554 4.38071 202 197 201
2.58133 3.52747 4.2826 198 194 193
2.64825 3.52447 4.25652 199 193 195
2.68397 3.47187 4.4449 191 189 192
-0.537958 3.78402 3.05414 141 135 135
0.520759 3.7522 3.30608 138 133 137
0.438147 3.7395 3.36217 134 132 135
0.695903 3.73692 3.34911 143 137 141
0.777354 3.70939 3.38877 208 203 207
0.674635 3.71791 3.34831 189 180 185
0.745235 3.70578 3.46582 194 188 192
1.1173 3.65015 3.51122 206 201 205
1.06893 3.64983 3.5062 142 137 141
1.16579 3.63977 3.52808 149 143 147
1.07938 3.63589 3.51101 204 199 203
1.19615 3.64398 3.53028 193 187 191
1.05013 3.67419 3.46091 194 188 190
1.1868 3.63006 3.55554 181 175 179
-0.918657 3.69944 3.19181 146 142 143
0.474017 3.55297 3.87867 212 206 206
0.971621 3.57638 3.74308 149 143 147
0.525509 3.60668 3.7058 203 198 202
2.50939 3.43515 4.50956 200 194 198
0.169648 3.71672 3.3542 200 198 201
0.948658 3.56649 3.58978 201 195 199
0.43651 3.54889 3.84019 204 198 200
1.52319 3.63257 3.72244 204 198 200
0.274841 3.65819 3.47466 207 202 206
-0.223086 -2.33683 3.5603 116 120 26
0.927374 3.50413 3.90055 208 202 206
1.21415 3.6292 3.61413 186 180 184
1.81787 3.32039 4.74491 164 158 160
-0.884353 3.56963 3.53845 199 197 198
-0.823432 3.74144 3.10167 171 162 165
2.34976 3.21793 4.86594 209 203 205
0.277443 3.47721 4.00059 202 197 201
-0.877859 3.76695 3.03986 146 144 145
-0.558174 2.53145 4.25956 134 132 137
-0.409488 3.65942 3.36958 150 144 146
0.159227 3.70284 3.38266 202 200 203
2.54741 3.47943 4.37507 188 183 187
-0.287282 2.26906 4.41959 126 129 138
1.49315 3.57433 3.99624 177 171 175
0.508515 3.28132 4.37998 201 195 199
-0.649479 3.74083 3.0726 157 153 154
-0.227062 2.23836 4.40471 116 117 122
-0.686157 3.38007 4.09474 193 191 194
0.987265 3.58445 3.76122 210 204 208
0.40137 2.69245 6.13001 152 147 144
0.0544325 -3.05195 3.83892 168 169 138
-0.0628475 -3.07373 3.72658 169 168 163
0.653237 -2.93769 3.87534 51 55 32
0.563887 -2.89856 3.85664 51 58 25
0.385819 -2.91256 3.56932 166 172 72
1.0989 -3.13728 4.26327 88 90 25
-0.744859 -2.60072 3.86937 141 142 134
-0.245641 -2.24132 3.57652 156 168 86
0.0824425 -2.59803 3.68557 167 171 60
0.821821 -2.7705 3.99997 57 60 3
0.626352 -2.48019 3.85909 29 35 1
1.09324 -2.47504 4.09645 40 51 17
0.962125 -2.6544 4.14153 46 54 17
1.03046 -2.58593 4.09902 89 98 17
1.44378 -2.99492 4.25928 84 95 3
-0.602289 -2.22763 4.37198 56 61 41
-0.668013 -1.88766 4.32349 47 56 25
-0.591038 -1.93829 4.31607 53 54 38
-0.425764 -2.13304 4.52886 40 43 34
0.298926 -1.82136 3.8594 87 94 14
0.651308 -1.84443 4.12627 81 89 42
0.642268 -1.69041 4.12323 57 67 14
1.07598 -2.25156 4.24956 71 85 50
-1.59504 -1.16456 4.10272 107 111 88
-0.220095 -1.20816 3.76243 128 135 58
-0.221027 -1.11713 3.9674 47 51 34
-0.19372 -1.20714 3.81803 124 132 46
-0.195199 -1.27361 3.81762 133 140 44
-0.0271552 -1.0748 4.0214 60 74 15
0.628404 -1.63018 4.20615 39 43 26
0.68326 -1.60135 4.2879 31 35 8
0.693483 -1.70889 4.28422 35 44 17
1.3551 -1.32346 4.85523 35 41 31
1.20562 -1.49156 4.7889 45 56 26
-1.51123 -0.947911 4.1887 50 52 41
-0.783104 -0.70626 3.94221 68 77 32
0.286733 -0.945121 4.28185 69 73 46
1.71218 -1.14062 5.14994 155 159 122
1.30669 -1.07325 4.64079 79 90 47
-0.965292 0.145314 4.60131 74 64 62
1.68973 -0.00662996 5.47269 91 94 83
1.55584 -0.084278 5.38627 78 90 52
2.22573 0.06125 5.81909 62 59 44
1.84598 0.0920685 5.50824 69 66 31
2.19968 -0.0878924 5.65867 153 154 94
-1.61529 1.14129 4.12568 108 107 115
-1.24073 1.19368 4.11897 90 90 92
-1.04722 1.14385 4.13602 121 118 125
-1.50422 0.966735 4.14579 103 107 118
-0.762901 0.973825 4.79727 83 71 59
-0.637953 0.911453 4.67029 126 110 94
-0.611428 1.01598 4.73711 113 105 92
-0.603971 0.905286 4.7526 88 79 74
-0.0236264 0.783615 5.12824 98 84 81
-0.0652855 0.922601 5.02181 75 72 63
0.131407 1.08193 4.96701 61 64 35
1.91889 0.989197 5.32279 243 229 200
1.96331 0.502763 5.14949 218 189 159
1.88108 0.39244 5.39602 172 144 107
1.93403 0.424642 5.30988 172 139 106
1.95285 0.471119 5.26151 225 194 163
-2.97757 2.4229 5.44005 136 126 117
-2.89502 2.32791 5.43363 106 95 89
-1.39796 1.64419 4.10994 90 88 91
-1.45962 1.64046 4.14063 126 126 128
-1.26255 1.42931 4.0433 126 129 136
-1.07513 1.69246 4.24258 65 60 64
-1.50431 1.8042 4.14918 101 97 98
-0.793355 1.98802 4.65642 91 90 95
-0.584748 1.78154 4.8291 64 60 61
-0.548261 1.91143 4.60678 159 157 162
-0.629703 1.93071 4.60034 153 152 157
-0.376345 1.80974 4.92524 97 95 98
-0.329733 1.29463 4.67194 111 102 71
1.13288 2.10452 7.86636 90 68 57
1.77252 1.68527 5.65515 248 224 200
1.81569 1.26964 5.557 250 218 180
1.72105 1.95911 5.76475 171 143 121
-2.80493 2.83477 5.28512 180 170 168
-2.88242 2.94617 5.04998 186 178 175
-2.7009 2.95968 5.16057 127 119 116
-2.60071 3.00394 5.24023 136 126 124
-1.34266 1.99451 4.0989 117 115 120
-1.44549 2.10305 4.14305 84 82 87
-0.948066 2.26121 4.59132 137 135 140
-0.55927 2.50916 4.28051 148 146 151
0.0247719 2.88348 5.23528 194 190 191
0.22388 2.84414 5.38885 122 112 113
0.184044 2.79855 5.43044 217 203 203
0.00193195 2.80905 5.27706 132 120 120
0.718382 2.83449 5.55552 107 102 106
0.414917 2.86788 5.4934 209 204 201
0.469129 2.88022 5.45951 213 207 207
0.698154 2.75474 5.83434 158 156 157
1.54963 2.75426 5.8375 131 113 101
1.30915 2.84081 5.74413 167 161 163
1.4935 2.65979 6.1312 179 157 133
2.10861 2.05581 5.63292 205 184 165
2.63158 2.73477 6.27441 166 161 158
-2.56308 3.22791 4.47338 111 102 103
-2.29349 3.32031 4.17322 158 154 155
-1.28905 2.96856 4.53397 184 183 188
-1.26435 3.33244 4.13669 118 112 112
-1.44546 3.25405 4.21037 137 132 129
-1.40054 3.03344 4.56844 115 113 114
-1.37475 2.97702 4.54534 90 89 94
-1.55404 3.10381 4.50407 182 177 181
-1.0026 2.89062 4.28847 79 79 87
-0.130408 3.21274 4.38059 135 130 134
-0.649538 2.86253 4.17381 84 81 90
-0.52781 2.69338 4.21124 101 99 104
-0.325817 3.23039 4.1608 153 152 158
0.0690285 3.1136 4.68634 116 111 115
0.28929 3.04871 5.11148 110 104 104
-0.0557723 2.95398 4.82243 193 189 186
-0.0408754 2.96464 4.65722 200 195 199
0.347974 3.11872 4.8223 202 198 195
0.456125 3.13897 4.55613 199 193 197
0.501024 3.19089 4.53017 207 201 205
0.310489 3.2166 4.4275 205 200 204
1.66462 2.87608 5.69897 114 101 95
1.34245 3.01546 5.32841 212 206 206
1.85935 3.04932 5.26582 207 201 205
2.08011 3.08335 5.43961 219 213 213
2.46835 3.18604 5.27007 210 204 206
2.95847 3.01831 5.9133 148 139 142
-1.60771 3.43464 3.79257 112 108 109
-1.35114 3.58199 3.4263 149 143 143
-1.37424 3.59709 3.41297 132 126 126
-1.7818 3.47621 3.76441 204 200 201
-1.53592 3.61622 3.34146 207 201 201
-1.424 3.49869 3.628 203 199 200
-1.19426 3.55919 3.45463 201 195 195
-1.42892 3.59255 3.34638 149 143 143
-1.9438 3.44178 3.74864 203 197 197
-1.07518 3.52199 3.42722 200 194 194
-0.78446 3.4335 3.87568 99 93 97
-0.965335 3.56653 3.53173 134 128 128
-1.08113 3.44342 3.88325 201 195 199
-0.615414 3.4963 3.7166 212 208 209
-0.800434 3.50747 3.64161 151 149 152
-0.883851 3.54146 3.61427 202 198 197
-0.380244 3.47446 3.90443 139 135 136
-0.306569 3.54491 3.64603 213 204 209
-0.436767 3.51947 3.77743 211 205 205
-0.179233 3.42427 4.09104 150 146 147
-0.0556443 3.48383 3.84655 164 160 161
-0.148805 3.51992 3.85726 161 157 156
-0.0548803 3.39117 4.1636 199 194 198
0.644922 3.41263 4.16322 111 105 105
0.596261 3.51421 4.04279 145 139 139
0.65187 3.36867 4.36048 140 136 135
0.016815 3.31565 4.24095 206 201 205
0.704923 3.46628 4.02811 189 183 183
1.28854 3.38989 4.3639 117 111 111
1.28291 3.45402 4.22851 148 142 142
1.34906 3.45575 4.22783 147 141 141
1.49223 3.36339 4.51176 113 107 111
1.63375 3.29382 4.8602 107 101 105
1.60656 3.46537 4.37429 211 205 207
1.59017 3.39175 4.34004 205 199 199
1.76678 3.41656 4.38597 204 198 202
2.50445 3.32088 4.85733 122 116 120
2.4695 3.42462 4.51731 137 131 135
2.57797 3.28987 4.87326 139 133 135
2.24622 3.3708 4.62702 150 144 146
2.49027 3.23266 4.96677 156 150 154
2.36904 3.37859 4.58673 157 151 155
-1.05224 3.74679 3.12186 115 109 111
-1.40007 3.68735 3.15905 112 115 124
-0.894474 3.75538 3.08651 120 116 117
-1.11199 3.7874 3.04635 131 126 123
-1.1567 3.7839 3.02215 197 191 191
-0.908656 3.68917 3.21222 145 141 142
-0.886405 3.6878 3.20165 210 206 207
-0.738197 3.74879 3.05308 203 197 197
-0.944157 3.6046 3.29459 138 134 135
-1.15177 3.79837 2.97454 201 195 199
-1.41046 3.62517 3.2998 159 155 156
-1.49012 3.67024 3.21978 155 151 152
-0.902738 3.77786 3.02278 195 190 194
-0.344271 3.71754 3.2882 140 135 139
-0.565914 3.73745 3.21627 123 121 124
-0.507709 3.68288 3.24962 137 135 136
-0.344627 3.67979 3.38242 142 138 139
-0.297486 3.69563 3.3336 200 195 199
0.214754 3.70582 3.3944 125 120 124
0.0102576 3.63376 3.54538 143 138 142
-0.176825 3.62121 3.60101 141 136 140
0.230576 3.73719 3.3559 145 140 144
-0.150668 3.57991 3.63785 142 140 143
0.602024 3.53543 3.68661 118 112 116
0.598899 3.61469 3.63892 114 108 112
0.603359 3.65387 3.59908 203 197 201
1.13791 3.66303 3.69539 128 122 122
1.23156 3.63355 3.61975 146 140 144
0.958381 3.61891 3.66199 121 115 119
1.30908 3.62747 3.74672 142 136 136
1.19854 3.51635 4.05932 158 152 152
1.06899 3.60745 3.7219 208 202 206
1.25468 3.53932 3.97872 158 152 152
1.12406 3.57777 3.81864 146 140 144
1.26976 3.50156 4.08792 208 203 200
1.99296 3.52565 4.29034 139 133 135
1.47487 3.63494 3.82276 151 145 145
1.64984 3.65664 3.91552 147 141 145
2.56293 3.5494 4.27202 122 116 118
2.44301 3.44718 4.44701 116 110 114
2.57837 3.53264 4.32122 132 127 131
2.45245 3.40756 4.4616 212 206 210
2.12279 3.5584 4.20285 151 145 149
-0.984138 3.80784 2.96112 120 116 117
-0.871832 3.79422 3.00452 123 118 122
-0.271213 3.75612 3.1826 109 104 108
-0.321136 3.77866 3.07143 197 195 198
0.172014 3.75922 3.20842 210 205 209
-0.142018 3.73534 3.18485 150 148 151
0.194642 3.73777 3.32779 200 198 201
0.223961 3.7722 3.25376 152 147 151
0.469391 3.74622 3.33931 198 193 197
0.586136 3.69778 3.36994 199 194 198
0.439098 3.758 3.31514 151 146 150
0.836619 -2.82693 4.02369 96 104 67
-1.04091 3.79763 3.03332 137 132 136
-1.30387 3.5896 3.28202 162 156 156
-0.990598 3.77184 2.96387 194 190 191
2.3826 3.43767 4.4697 200 194 196
-1.5308 3.55705 3.52251 201 195 195
-0.568445 3.65225 3.33766 204 198 198
0.302475 3.56441 3.68178 208 204 205
-1.61787 3.4245 3.83295 146 142 143
1.67502 3.57419 3.96389 199 197 200
-0.930885 3.59489 3.36218 136 132 133
0.627155 -2.48673 3.78001 147 154 40
-1.28586 3.63817 3.13738 182 195 212
1.57428 3.61978 3.79804 200 194 198
-0.204935 -2.34385 3.61103 146 155 50
0.750731 -2.60771 3.84842 89 103 44
0.114105 3.59048 3.62039 158 153 157
-0.104766 3.69737 3.37014 153 151 154
0.469776 -2.43421 3.82343 32 45 27
-0.101979 -2.45176 3.64512 145 151 53
1.72542 3.6498 3.83524 152 143 146
-1.2792 3.50803 3.42752 188 182 182
1.23519 3.61435 3.71574 167 161 165
-0.00253315 3.60197 3.61522 207 202 206
-0.135953 3.69371 3.34538 198 196 199
-1.06753 3.75991 3.04898 189 184 181
1.03651 -2.37654 4.05949 68 80 34
0.0357698 3.56335 3.75922 214 209 213
0.255624 3.5255 3.95216 153 149 150
-1.10002 3.65238 3.2546 164 160 161
1.46268 3.61362 3.69818 202 196 196
1.56449 3.41519 4.40843 156 151 148
2.27954 3.55765 4.09993 148 143 147
-1.48823 3.64206 3.25678 200 195 199
1.36295 3.27047 4.693 201 195 195
-0.132109 -2.30865 3.5664 108 116 17
-1.28624 3.62567 3.15211 128 143 162
-1.39228 3.6494 3.14859 190 189 194
-1.06537 3.7834 3.0433 184 178 178
-0.727992 3.76793 3.04059 142 136 138
-1.19746 3.6404 3.21725 209 203 203
-0.997108 3.70555 3.15241 185 183 184
-1.38732 3.60634 3.31342 200 194 194
-1.11074 3.403 3.79393 199 193 197
-1.69454 3.5824 3.38698 192 186 186
0.802063 -2.58594 4.19967 52 59 17
1.22135 3.42897 4.16148 204 198 198
-1.92231 3.41388 3.80389 162 158 159
1.38689 3.45949 4.22466 201 195 195
1.44651 -2.90431 4.25668 97 110 56
-0.268526 3.68333 3.34898 187 182 186
-1.65641 3.50892 3.53953 197 191 191
2.37194 3.50309 4.43565 147 140 147
-1.52019 3.57611 3.38152 163 157 157
-0.130528 3.49015 3.65649 202 197 201
0.323618 3.55939 3.6757 203 199 200
-0.278746 2.45669 4.21243 98 95 102
0.247368 3.49433 3.96659 205 201 200
-0.344174 3.48888 3.76408 202 197 201
-0.617308 2.08047 4.5396 105 105 107
-0.351143 3.49154 3.87805 204 200 201
-1.62077 3.5498 3.48336 198 192 192
1.40345 2.97354 5.43661 202 196 196
0.540089 3.44175 4.05214 204 198 202
2.44647 3.39948 4.59255 200 194 198
-0.589382 3.59925 3.41834 198 192 192
1.17935 3.66273 3.61728 205 199 203
0.578875 3.37812 4.19601 204 200 201
1.30278 -2.55493 4.39645 94 98 83
-1.49356 3.46785 3.74693 201 195 195
1.32906 3.25652 4.68374 210 204 204
0.852422 3.54191 3.74052 200 194 198
1.29103 3.44123 4.29297 205 199 199
-1.68818 3.562 3.44788 174 168 168
1.89191 3.40805 4.39985 202 196 200
0.753132 3.68707 3.50257 197 192 196
-0.412658 3.47685 3.76927 188 182 182
0.452953 2.52119 6.70404 145 135 126
-0.208962 2.22874 4.33288 156 153 160
0.00257718 3.37042 4.19855 197 191 195
2.5648 2.85289 6.16164 169 164 168
-1.48209 3.48007 3.70243 182 176 176
-1.29676 0.90842 4.36078 163 161 162
0.0963141 0.774969 5.10438 152 148 139
2.1675 1.09008 5.37289 172 156 123
2.20777 0.454542 5.22236 223 199 165
-1.03317 1.81511 4.28968 74 74 76
0.351027 1.85242 7.67761 142 121 104
-0.53495 2.42678 4.31679 89 84 90
1.9237 2.81435 5.68116 188 166 143
-0.427012 2.88232 4.11709 78 81 90
0.377167 3.12257 4.87525 213 207 211
1.71204 3.14859 5.149 150 144 148
2.01325 3.1642 5.01548 205 200 204
3.25008 3.02182 5.86606 199 191 189
0.935215 3.31803 4.43657 159 154 158
2.35155 3.34277 4.88566 115 108 115
2.7395 3.31429 4.8453 150 141 146
2.59567 3.51476 4.37912 202 196 200
-0.273603 3.69668 3.34683 148 146 151
-0.371798 3.76651 3.0591 201 196 200
0.202666 3.74143 3.26041 138 133 137
0.1306 3.77349 3.18946 209 207 208
2.25545 3.45465 4.53217 143 137 137
2.21955 3.36232 4.59354 211 202 207
-0.392817 3.67218 3.36324 151 145 145
-0.586934 3.67262 3.32894 203 201 206
1.60936 3.59072 4.0154 143 141 146
1.11409 3.55071 3.88346 165 160 166
2.39847 1.30439 5.58825 175 146 116
2.06525 3.12223 5.26411 213 202 208
1.02726 -2.52131 4.08502 143 150 46
-1.96151 -0.751106 4.01176 76 77 69
1.28293 -1.04013 4.67462 110 119 76
1.77 -0.938279 5.37236 153 155 142
0.586399 -0.421932 5.66788 174 167 161
-1.323 0.935689 4.25352 90 90 100
-1.50245 0.872838 4.14576 165 166 168
2.21643 0.583903 5.21999 181 154 125
0.732331 1.82894 7.72533 84 57 38
2.20008 1.86502 5.60452 239 217 194
2.22457 1.34368 5.45949 190 166 140
-2.57126 3.01624 4.99589 133 123 122
-0.723452 2.38846 4.40939 138 136 137
-0.628186 2.36775 4.34739 147 145 148
0.23711 2.82167 5.4863 204 194 193
-1.92895 3.30161 4.24143 197 191 195
-1.21477 3.20763 4.32659 117 113 114
-0.629115 2.95488 4.16784 125 124 130
-0.303365 2.6972 4.15829 95 93 98
-0.808895 2.6769 4.21423 163 161 166
0.0272249 3.06028 4.87615 200 196 197
0.0647991 3.01827 4.88609 200 196 195
0.752328 3.19758 4.77428 113 107 111
1.14782 3.30946 4.67495 152 147 144
0.988005 3.29529 4.69389 148 143 139
1.90295 3.24792 4.99862 118 112 116
1.65264 3.04959 5.29379 131 125 125
3.04315 3.23751 5.21432 194 188 188
2.97208 3.18314 5.3446 208 202 202
-1.21709 3.54885 3.59078 200 196 197
-0.715822 3.33296 4.09374 110 101 102
1.85181 3.33606 4.72383 122 116 116
-0.860819 3.71366 3.18447 131 127 128
-1.11392 3.65578 3.22996 128 126 127
0.281162 3.63061 3.53624 130 125 129
1.66622 3.63501 3.78296 141 133 131
1.48813 3.59472 3.95601 139 133 137
1.68195 3.62886 3.81114 202 196 196
2.31331 3.5447 4.11828 145 140 144
-0.62596 3.74866 3.11261 134 128 128
-0.444918 3.77334 3.05625 134 130 129
-0.692066 3.7809 3.03954 202 198 199
0.0552077 3.76153 3.20346 147 138 143
0.0102474 3.76915 3.19296 203 194 197
0.423293 3.79627 3.2812 167 165 168
0.677604 3.74614 3.32672 203 198 202
0.747025 3.7418 3.34351 172 168 167
-0.126246 3.71905 3.33046 204 199 203
-1.29926 3.61595 3.31109 207 201 201
1.19316 3.52694 3.90798 205 199 203
0.907705 3.31228 4.42579 206 201 205
0.651107 -2.40712 3.79843 38 45 12
-0.259329 3.71729 3.28011 200 195 199
1.42366 3.36058 4.32493 203 199 200
-0.090982 -1.94968 3.64399 112 121 76
0.380227 3.57394 3.65806 159 155 156
0.29119 3.71215 3.39329 202 196 200
-1.37688 3.59526 3.30248 199 193 193
-0.121435 3.7237 3.24614 156 144 146
0.0374825 3.43854 3.94446 210 205 209
1.71574 3.01899 5.47344 200 194 194
-0.769297 2.56022 4.26542 141 139 140
-0.558778 -2.65555 3.76388 70 73 54
-0.683427 -2.57994 3.79936 40 43 32
0.0437461 -0.515786 4.2792 174 168 156
1.63399 -1.13276 4.95075 112 125 81
-0.830515 0.355493 4.83459 165 156 157
-0.965316 0.0172071 4.53783 98 88 79
-0.911148 -0.157907 4.43497 82 72 63
1.91912 0.0653285 5.55694 115 120 56
2.14992 -0.218028 5.75373 125 136 96
-1.54861 1.15848 4.10086 118 121 128
-1.45376 1.16282 4.11759 111 114 121
-1.51373 1.15093 4.09648 94 97 104
-1.35623 0.919282 4.1717 106 109 118
-1.04929 0.976666 4.35703 165 163 166
-1.03857 1.10866 4.12849 140 138 143
0.0808433 0.979197 5.02732 82 81 63
-1.54048 1.83018 4.16442 119 115 112
-0.97464 1.58228 4.35374 118 116 121
-0.396476 1.93018 4.68672 97 94 101
2.14074 1.30004 5.41523 185 166 136
-2.68199 2.97756 5.13672 187 177 175
-1.30731 1.95468 4.10587 119 118 124
-0.614706 1.99363 4.52174 83 82 87
-0.198788 2.12744 4.7495 144 139 143
-0.272635 2.31416 4.34013 111 109 114
0.507566 2.66611 6.1484 110 108 109
-2.16468 3.3639 4.03863 162 156 156
-1.72945 3.32235 4.10507 176 170 174
-1.45322 3.32594 4.14308 102 96 96
-1.23175 3.33061 4.1271 205 199 199
0.202383 3.27587 4.45808 111 105 105
-0.200458 2.6127 4.1795 126 124 127
0.620791 3.18866 4.66498 213 207 211
0.86617 3.1694 4.93474 157 152 149
0.557819 3.07876 4.90667 195 190 194
1.47763 3.30111 4.69111 144 138 138
2.13413 3.27044 4.9185 205 199 201
2.34964 2.99605 5.72718 207 198 199
2.81602 3.1797 5.35319 147 141 145
-1.60269 3.56913 3.45668 132 126 126
-2.06891 3.47714 3.70991 204 202 203
-1.65699 3.5528 3.52009 153 147 147
-0.948777 3.39994 3.83705 152 146 150
-0.927922 3.55411 3.56845 140 134 134
-1.21164 3.50372 3.59687 135 131 132
-0.544114 3.37115 4.13668 214 209 215
-0.643148 3.51434 3.67618 196 190 194
-0.0704896 3.37716 4.13742 148 143 147
0.437681 3.49386 4.0308 212 206 210
1.17826 3.32262 4.56647 117 112 109
0.536325 3.39954 4.23938 157 153 154
0.643201 3.52315 3.97371 125 119 119
1.23438 3.41229 4.33673 198 192 192
1.97201 3.52306 4.18971 132 126 126
2.10055 3.54897 4.22312 214 209 213
-1.56242 3.61387 3.35655 90 84 84
-1.36438 3.61978 3.2801 137 133 134
-1.24134 3.73382 3.09632 104 112 125
-0.9193 3.60397 3.34372 194 190 191
-1.09815 3.6416 3.32118 151 147 148
-0.668565 3.6347 3.39388 135 129 129
-0.71322 3.6672 3.27429 209 203 203
-1.04549 3.71336 3.13333 131 129 130
-0.644635 3.66342 3.31628 164 158 158
0.374066 3.70606 3.47274 129 124 128
0.43477 3.7028 3.47013 151 146 150
0.176153 3.73635 3.3339 131 129 132
0.473527 3.70246 3.48529 132 127 131
1.15958 3.55322 3.91682 112 106 110
0.845368 3.53058 3.75234 134 128 132
1.52045 3.57193 3.99345 121 115 119
1.67468 3.59398 3.92563 194 188 192
1.62608 3.61803 3.83032 200 194 198
-1.12772 3.76029 3.02076 189 185 184
-0.973186 3.76273 3.04926 206 200 200
-0.287815 3.75223 3.17389 215 210 214
-0.165599 3.73944 3.20945 210 205 209
0.0776269 3.78075 3.19117 203 198 202
-0.0219541 3.71973 3.23272 187 163 159
0.179569 3.7825 3.19574 136 131 135
0.22023 3.73708 3.24057 157 155 158
-0.637442 3.732 3.16505 204 199 196
-0.259922 3.73399 3.21585 156 151 155
-0.223128 3.61719 3.60897 146 140 144
0.224885 3.64826 3.46084 138 133 137
-1.30849 3.58149 3.42546 205 199 199
-1.1876 3.70307 3.15305 132 126 130
1.56117 3.55576 4.06416 148 143 147
-0.0352941 3.68117 3.42204 200 198 201
2.00765 3.4908 4.26268 208 202 206
-1.0681 3.5829 3.39727 203 199 200
-0.352864 3.75177 3.20498 203 201 204
1.01405 3.40793 4.24024 206 200 200
-1.04432 3.65632 3.26809 169 165 166
-0.911646 3.67295 3.2449 194 190 191
-0.0941933 -1.2494 3.96912 59 69 16
-1.09727 3.64189 3.27416 202 196 196
1.31356 3.466 4.21951 203 197 197
-0.17038 3.667 3.4785 142 140 143
-2.21479 3.40883 3.94508 198 192 192
-0.0898863 3.55555 3.63129 142 140 143
1.39654 3.35211 4.63004 213 208 205
0.962738 3.29415 4.4906 203 197 201
0.877931 3.4632 4.04741 206 202 201
1.37336 3.36349 4.62649 172 167 164
1.06869 3.52689 3.89889 162 156 160
-0.642993 3.43483 3.809 185 179 183
-2.378 3.171 4.64401 197 192 188
1.20247 3.47749 4.07678 194 188 188
0.369903 3.72551 3.37616 190 188 191
0.0614477 -3.0914 3.8476 45 45 37
0.202968 -2.88262 3.69282 152 163 58
0.210006 -3.18819 3.7982 171 176 118
-0.0975895 -3.01721 3.79291 174 170 161
0.750822 -3.22857 3.96125 167 164 113
-0.64092 -2.68689 3.90128 161 160 142
-0.333018 -2.15803 3.60046 47 61 0
-0.682589 -2.7682 3.59701 160 161 153
-0.287875 -2.27535 3.60184 47 56 13
-0.166898 -2.55405 3.71478 155 166 72
0.250868 -2.41645 3.71909 130 143 97
0.172372 -2.65544 3.70335 126 133 66
-0.203358 -2.7672 3.8185 48 60 14
0.201535 -2.68761 3.71471 38 47 26
-0.173768 -2.63209 3.77966 48 60 0
0.763891 -2.78762 3.95556 49 54 13
0.855882 -2.72565 4.14278 155 171 72
0.588131 -2.62675 3.88242 82 95 23
0.551936 -2.71561 3.85293 54 57 38
0.80812 -2.62951 4.06133 99 110 50
0.998768 -2.67697 4.17358 44 56 10
1.44767 -2.61569 4.24406 158 164 130
0.986968 -2.94162 4.1409 164 164 76
1.23515 -2.79835 4.03559 48 57 10
1.04454 -2.57929 4.12909 154 161 58
-0.700747 -1.96085 4.17814 77 80 53
-0.839008 -1.67336 3.79785 124 135 57
-0.769235 -1.63874 3.8367 75 86 10
-0.396521 -2.22534 4.47563 168 170 159
0.836328 -1.78108 4.12451 150 153 76
0.566515 -1.72842 4.08134 61 68 14
1.10148 -2.26571 4.62056 167 162 159
-1.48863 -1.22598 4.39031 65 68 47
-0.368281 -1.30584 3.77903 136 144 97
-0.159214 -1.25013 3.95208 117 131 36
-0.0338263 -1.04578 4.00862 134 145 69
-0.187184 -1.06285 3.97505 108 118 84
-0.180984 -1.27716 3.92748 136 144 67
0.596055 -1.48773 4.55815 47 49 36
0.892681 -1.40378 4.42084 137 141 114
0.374471 -1.61038 4.12318 142 152 92
0.710159 -1.54272 4.29501 58 64 26
1.40198 -1.27092 4.98941 44 52 31
1.18516 -1.32808 4.67564 73 82 51
-1.87279 -0.856681 3.93946 157 160 153
-0.0095179 -0.516017 4.24195 101 92 83
0.027048 -0.944693 4.04444 50 62 14
0.984453 -1.09546 4.54176 59 67 46
1.65944 -1.23546 5.14129 157 161 128
1.55525 -1.28863 5.18524 118 122 87
-0.880143 0.261385 4.59302 85 75 73
-0.958586 0.236357 4.53328 117 107 106
-0.835239 0.423289 4.65253 104 95 90
0.681697 -0.234808 5.80594 73 70 63
1.65478 -0.356496 5.47106 49 57 10
1.17306 -0.00907311 5.15705 95 105 55
2.18178 -0.0369291 5.62412 123 130 79
2.41624 -0.348226 6.06962 120 125 71
-0.935588 1.06809 4.27641 170 166 167
-0.956697 1.11221 4.2925 88 83 87
-0.772484 0.567485 4.6783 103 94 87
-0.223994 0.937968 4.98784 68 71 52
-0.42611 0.851734 4.92209 155 151 140
0.529822 0.710887 5.34288 83 81 58
1.38753 1.66671 8.08669 158 140 118
1.54355 1.66459 8.14815 93 76 60
1.82498 0.411019 5.52491 213 187 164
1.95464 0.348872 5.25051 217 186 157
-2.77534 2.41004 5.39343 85 69 53
-1.23054 1.2285 4.12061 81 82 87
-1.47044 1.61985 4.14712 92 90 93
-1.43408 1.88659 4.13345 130 126 127
-1.11966 1.33475 4.1172 120 117 124
-1.32964 1.40773 4.06343 94 94 96
-1.16698 1.35852 4.13117 121 120 126
-1.30488 1.22184 4.11731 95 96 100
-1.14203 1.52538 4.13086 98 96 99
-1.13915 1.51544 4.17343 77 75 78
-0.506415 1.89992 4.65325 96 93 100
-0.988916 1.25836 4.20688 110 111 115
-0.941832 1.62939 4.38181 75 74 79
-0.375612 1.75623 4.87963 60 53 47
1.08147 2.10827 7.78048 189 171 161
1.16809 2.09057 7.8852 117 92 72
1.12858 2.19951 7.80045 147 137 128
1.92599 1.97176 5.48305 218 198 173
1.71212 1.754 5.74919 241 215 182
1.74073 1.99167 5.72976 208 189 157
1.89226 1.8735 5.46842 164 143 114
1.88753 2.01118 5.52647 167 148 118
2.01661 1.22937 5.28439 236 214 190
-2.68111 3.08876 4.83813 116 112 111
-2.74894 3.11044 4.74969 121 112 113
-2.79106 3.0048 5.0751 169 160 165
-2.86663 2.52167 5.17729 73 56 40
-1.20639 2.17231 4.24934 95 93 98
-1.24724 2.17173 4.23487 75 73 76
-0.591746 2.04678 4.5267 73 68 72
-0.577546 2.06408 4.52915 141 136 140
-0.377918 2.46449 4.22752 165 163 166
-0.613345 2.36792 4.37442 101 99 102
-0.602298 2.3113 4.40428 130 128 131
-0.498177 2.40996 4.35974 98 96 99
-0.322094 2.26927 4.39723 68 67 72
-0.17941 2.50418 4.21577 140 135 141
-0.248144 2.27453 4.35898 143 141 144
-0.292231 2.15537 4.39842 110 107 114
1.13452 2.90509 5.5727 219 213 213
1.04465 2.80199 5.73294 204 199 196
0.391592 2.61383 6.56302 136 131 128
0.801534 2.67436 5.93078 173 171 172
1.30426 2.7605 6.08029 99 94 91
1.50083 2.76719 6.03505 112 94 80
1.4728 2.71493 6.07873 135 116 99
1.33603 2.50407 6.7016 108 97 91
2.55568 2.85954 5.9817 212 204 202
3.04815 2.62609 7.13053 104 87 79
2.99929 2.79004 6.39176 182 174 172
3.16045 2.90291 6.17034 129 124 121
-1.86298 3.24579 4.2796 114 110 111
-2.53838 3.21726 4.55832 160 155 152
-2.38869 3.2628 4.39133 163 158 155
-2.5916 3.21417 4.48763 190 185 182
-1.15275 3.25376 4.32962 209 204 201
-1.82223 3.15769 4.57419 137 135 136
-1.45477 3.32052 4.17378 114 110 111
-1.4366 3.17877 4.47122 161 155 155
-0.288339 2.85701 4.16417 150 148 149
-0.55302 2.74812 4.17708 135 130 134
-0.595083 3.0568 4.12839 138 141 148
-0.337113 3.23816 4.20428 145 143 148
-0.385798 2.60134 4.20936 124 122 127
-0.852929 3.26064 4.3366 156 154 159
-0.144189 3.20303 4.43831 203 202 208
0.0215607 3.17327 4.47523 156 152 153
-0.162092 3.21791 4.3812 208 208 210
-0.00591595 3.26915 4.30583 208 204 205
-0.110159 3.12942 4.54521 106 106 114
0.997958 3.24544 4.73144 129 123 123
0.622335 3.21566 4.53869 133 127 127
0.709836 2.99459 5.23307 163 157 161
1.15931 2.9977 5.33445 220 211 214
1.18848 3.03896 5.31418 211 202 205
2.03469 3.00952 5.55135 104 98 98
1.68616 2.97493 5.46192 146 137 138
1.82086 3.14601 5.10783 149 140 143
2.12207 3.13835 5.12498 162 153 156
2.16792 3.20994 4.88576 207 201 205
3.02991 3.27091 5.11767 117 111 115
3.09387 3.03288 5.71928 171 163 160
-1.54689 3.47843 3.75561 121 117 118
-1.92999 3.43883 3.79406 210 206 207
-1.81115 3.50495 3.68749 145 140 144
-1.7734 3.50828 3.67404 199 194 198
-1.34686 3.38464 3.99949 113 104 109
-1.21865 3.43985 3.77317 117 111 115
-1.03571 3.41829 3.89734 121 115 119
-0.71021 3.58792 3.63857 150 144 148
-0.909739 3.45158 3.7721 150 145 149
-0.76811 3.49013 3.65251 205 199 201
-1.11535 3.48206 3.67521 200 196 197
-0.736142 3.33266 4.11585 107 101 101
-0.353728 3.46565 3.99391 143 138 142
-0.461825 3.51816 3.7845 146 141 138
-0.166756 3.48868 3.88343 157 153 154
-0.490026 3.47274 3.7537 155 146 147
-0.538579 3.54493 3.67594 153 147 151
0.366835 3.4149 4.15334 117 111 115
0.0997625 3.33292 4.16975 123 119 120
0.469314 3.55131 3.90538 152 146 146
0.176705 3.40852 4.15507 159 154 158
0.186453 3.52302 3.76889 202 196 200
0.412182 3.4201 4.19596 147 142 139
0.42582 3.29288 4.34151 211 205 205
0.645417 3.4561 4.09439 133 127 129
0.835894 3.38333 4.15265 141 135 139
1.10986 3.50744 3.94881 121 115 115
0.885515 3.42348 4.14718 203 198 195
1.17933 3.34436 4.48419 146 140 140
0.676708 3.53064 3.92784 157 151 151
0.544509 3.43131 4.09783 163 157 157
0.853058 3.46547 4.01449 159 153 157
1.67616 3.4212 4.34735 136 125 129
1.6066 3.30496 4.7217 150 141 144
1.28787 3.47574 4.07241 127 121 121
1.74391 3.39485 4.3309 124 115 118
1.739 3.39855 4.36341 126 117 120
1.33667 3.45607 4.26294 132 126 126
1.61633 3.4785 4.24877 154 148 148
1.39978 3.32752 4.63254 147 141 141
1.78947 3.43898 4.29143 210 206 207
2.27357 3.40876 4.4896 165 156 159
2.13832 3.50599 4.25056 196 187 190
-0.865166 3.61578 3.45169 138 133 130
-0.632573 3.62003 3.37661 146 141 138
-1.02365 3.63769 3.36869 147 143 144
-0.385509 3.5586 3.62037 201 192 195
-0.342427 3.65288 3.5013 211 202 203
0.551426 3.61059 3.61464 133 128 125
-0.0463184 3.52525 3.64676 152 143 146
0.630173 3.60283 3.60943 196 190 190
0.58869 3.55882 3.68239 201 195 199
0.662718 3.70228 3.45004 204 198 202
1.45973 3.70729 3.64319 122 116 120
1.52931 3.60411 3.87601 123 117 119
1.48465 3.57981 3.90854 213 206 213
1.70765 3.63453 3.77444 148 139 144
1.53948 3.56472 3.94676 195 189 191
1.57545 3.61996 3.63082 158 152 156
1.19324 3.64761 3.63327 151 145 147
2.06883 3.58587 3.95814 134 123 129
2.0553 3.60788 3.89158 129 124 128
2.01757 3.5757 4.0059 204 198 202
2.21313 3.57787 3.92501 140 136 135
2.309 3.56134 4.03167 202 193 198
1.93088 3.56455 4.03717 213 208 212
2.26668 3.59 4.04524 198 196 197
1.90511 3.55452 4.04398 203 198 202
2.13852 3.63083 3.8424 163 154 157
2.04552 3.64041 3.7745 157 153 152
2.22086 3.58986 4.04592 154 148 152
2.02849 3.59325 3.92628 191 185 189
2.33989 3.60914 3.95053 198 189 192
0.973337 -2.48805 4.12578 47 58 18
-0.268942 -2.13984 3.60378 49 63 10
0.00800349 -2.59274 3.67526 152 160 51
0.0302645 -2.59623 3.68582 101 106 4
-0.230648 -2.40013 3.65863 155 163 60
1.47701 3.67863 3.6111 204 198 202
1.03761 -2.66694 4.14208 64 74 14
2.27475 3.45487 4.30914 134 128 132
0.704248 -2.77273 3.91547 149 155 83
0.0766385 -1.03313 4.0835 76 89 43
1.27149 3.56471 3.90929 212 206 206
1.43382 3.6899 3.6306 204 198 198
-1.46984 3.59118 3.44125 166 161 165
2.02964 3.65855 3.83533 145 141 142
-1.66598 3.48775 3.70699 203 199 200
-0.343881 3.65514 3.46606 207 202 199
1.05688 -2.59418 4.15899 126 129 14
2.03892 3.63428 3.93908 198 193 197
-0.156994 -2.7771 3.71296 148 161 73
1.80052 3.24325 4.91283 211 205 205
1.41481 3.50409 4.06324 205 199 199
0.58058 3.53421 3.7025 201 194 201
2.34057 3.2886 4.87257 161 152 157
-0.330222 3.47917 3.68418 199 195 194
0.0463445 3.32663 4.17988 200 195 199
2.07475 3.62609 3.8037 203 198 195
-0.709981 -1.62611 3.8703 97 113 40
1.04953 3.52439 3.81425 186 180 180
1.53597 3.43852 4.26501 208 202 202
1.30923 3.58176 3.74221 201 196 193
2.25848 3.65575 3.82871 160 151 156
1.91763 3.64132 3.80112 160 155 159
0.672228 3.61681 3.57803 194 188 188
-0.246736 -2.35698 3.61498 121 129 26
0.35173 3.34181 4.23381 202 196 196
1.64707 3.60172 3.81969 153 147 147
1.89913 3.52299 4.21545 157 151 151
0.176975 3.47905 3.78573 208 202 204
1.63308 3.10378 5.03087 206 197 200
1.31831 3.6301 3.56151 200 194 198
2.28018 3.65013 3.90616 202 193 196
-0.52267 2.12985 4.44869 149 144 148
0.668059 3.6296 3.61088 145 139 139
1.2881 3.35997 4.3803 202 196 196
1.3251 3.47083 4.25771 200 194 194
0.5021 3.60798 3.62546 169 163 165
1.96387 0.640548 5.26566 218 196 173
0.779555 3.51937 3.69035 159 153 157
1.44255 3.03287 5.0443 206 200 202
2.27634 3.61667 3.95788 206 197 202
1.9975 3.40328 4.51684 215 206 209
1.0048 3.63855 3.58731 207 201 205
1.8372 3.62187 3.91007 150 145 149
0.716827 3.30169 4.2527 198 192 196
0.934822 3.63319 3.50876 201 196 200
0.631502 3.12412 4.78489 205 199 201
1.405 3.34696 4.57088 208 202 202
0.597433 -0.32214 5.80249 65 60 56
0.384156 -0.296203 4.84366 171 168 161
-0.314949 0.771076 4.93116 159 152 144
2.07087 0.603222 5.1495 240 214 187
-0.851723 1.46869 4.45373 76 75 81
-0.996609 1.55301 4.32917 81 79 82
1.67646 1.73521 5.86473 228 196 157
-1.23984 2.21878 4.22168 92 92 94
-1.46399 1.96332 4.13819 123 121 122
-1.09483 1.79683 4.23939 100 96 95
-0.867088 2.10449 4.63455 127 126 131
-0.79099 2.38741 4.42334 127 125 126
1.73698 2.06122 5.74687 208 187 156
2.1485 2.91185 5.78486 216 205 203
3.0352 2.78804 6.20376 207 198 201
-1.45912 3.02722 4.60116 119 118 126
-0.542113 2.56569 4.22865 144 142 147
-0.332496 2.6689 4.17347 145 143 146
2.56332 3.10321 5.39536 155 146 151
-0.96457 3.21286 4.28818 198 194 195
-1.00799 3.32055 4.16666 206 200 200
-0.444615 2.96597 4.14368 119 120 125
1.62327 3.44683 4.34002 111 105 107
1.48046 3.45837 4.26372 209 203 205
1.45782 3.36991 4.52321 213 207 211
1.76447 3.45963 4.26932 134 128 128
2.15996 3.38205 4.54226 138 133 130
1.80537 3.43174 4.35502 153 148 145
2.51711 3.39315 4.62779 198 192 192
-1.9666 3.45247 3.80903 124 120 119
-2.05321 3.43592 3.8036 165 159 159
-0.760664 3.4081 3.88202 163 157 161
0.862725 3.45946 4.06487 162 158 157
2.19976 3.57875 4.05878 133 127 131
-1.20398 3.65374 3.32987 125 119 119
-0.405858 3.65054 3.42365 203 195 193
-0.188251 3.6752 3.45705 123 119 120
0.43636 3.55236 3.85152 201 195 195
2.31044 3.34635 4.70232 208 202 206
2.02617 2.0563 5.59777 203 185 165
1.72539 3.33399 4.60747 160 155 152
1.15402 3.49596 3.95002 202 196 196
2.13958 3.36903 4.71853 201 195 195
-0.964804 2.29672 4.57295 104 102 107
1.45404 3.58704 3.90798 214 208 212
0.696702 3.37706 4.26657 185 181 180
-0.845998 3.59777 3.46359 169 165 166
2.08988 3.58403 3.96425 184 178 180
-0.0126224 -3.0719 3.70968 83 90 48
0.309204 -2.86653 3.63775 156 170 91
1.20472 -3.21591 4.30759 149 147 135
-0.670389 -2.67434 3.90349 83 84 66
0.655068 -2.78197 3.9115 41 49 28
-0.644177 -2.27673 4.25591 32 34 31
0.508811 -2.21277 4.4199 189 182 176
0.950183 -1.78631 4.35993 123 125 104
-1.01097 -1.41356 3.7381 115 123 72
0.718503 -1.56686 4.28082 43 53 3
0.408795 -1.64813 4.0821 54 66 18
1.31189 -1.49424 4.85226 109 120 51
-1.70745 -1.02421 4.24633 71 78 60
-0.788612 -0.616589 4.01757 84 94 59
-0.829166 -0.604003 4.00481 48 59 25
1.58966 -1.10119 5.27267 52 52 50
0.988414 -0.254254 4.9471 58 66 27
-0.549716 0.959567 4.97457 69 66 59
-0.568585 0.970564 4.79077 86 82 73
1.86619 0.500229 5.39111 176 149 120
1.81376 0.379042 5.52661 214 188 153
1.7832 0.427135 5.53948 179 149 111
2.02628 1.05559 5.2713 241 228 194
2.21576 0.580684 5.25874 175 152 121
2.30761 0.571661 5.2867 166 142 114
-1.41168 1.19136 4.10821 90 91 96
-0.869133 1.44855 4.44713 73 73 75
-0.926483 1.33547 4.42106 72 72 72
1.35033 2.40926 7.1679 108 99 94
-2.87918 2.82793 5.25469 69 59 58
-2.91029 2.94681 5.28725 132 123 126
-2.72078 2.86951 5.36361 179 173 173
-2.85633 2.30846 5.52325 107 98 93
-1.23981 2.19448 4.20849 103 101 104
